ply
format ascii 1.0
comment this file is a revolution surface
element vertex 78
property float x
property float y
property float z
end_header
0.841471 0.000000 0.000000
0.830384 0.200000 0.000000
0.793486 0.400000 0.000000
0.717356 0.600000 0.000000
0.564642 0.800000 0.000000
0.000000 1.000000 0.000000
0.129798 0.000000 -0.831400
0.128088 0.200000 -0.820445
0.122396 0.400000 -0.783989
0.110653 0.600000 -0.708771
0.087097 0.800000 -0.557885
0.000000 1.000000 -0.000000
-0.801428 0.000000 -0.256489
-0.790868 0.200000 -0.253110
-0.755726 0.400000 -0.241863
-0.683219 0.600000 -0.218658
-0.537773 0.800000 -0.172109
-0.000000 1.000000 -0.000000
-0.377041 0.000000 0.752272
-0.372073 0.200000 0.742360
-0.355540 0.400000 0.709373
-0.321428 0.600000 0.641314
-0.253001 0.800000 0.504788
-0.000000 1.000000 0.000000
0.685110 0.000000 0.488567
0.676083 0.200000 0.482130
0.646041 0.400000 0.460707
0.584058 0.600000 0.416505
0.459721 0.800000 0.327838
0.000000 1.000000 0.000000
0.588399 0.000000 -0.601548
0.580646 0.200000 -0.593622
0.554845 0.400000 -0.567244
0.501612 0.600000 -0.512821
0.394827 0.800000 -0.403650
0.000000 1.000000 -0.000000
-0.503587 0.000000 -0.674147
-0.496951 0.200000 -0.665264
-0.474869 0.400000 -0.635703
-0.429309 0.600000 -0.574712
-0.337916 0.800000 -0.452365
-0.000000 1.000000 -0.000000
-0.743757 0.000000 0.393572
-0.733957 0.200000 0.388386
-0.701344 0.400000 0.371128
-0.634055 0.600000 0.335521
-0.499075 0.800000 0.264094
-0.000000 1.000000 0.000000
0.274136 0.000000 0.795565
0.270523 0.200000 0.785082
0.258503 0.400000 0.750197
0.233701 0.600000 0.678221
0.183950 0.800000 0.533838
0.000000 1.000000 0.000000
0.828329 0.000000 -0.148138
0.817415 0.200000 -0.146186
0.781093 0.400000 -0.139690
0.706152 0.600000 -0.126288
0.555824 0.800000 -0.099403
0.000000 1.000000 -0.000000
-0.018594 0.000000 -0.841265
-0.018349 0.200000 -0.830181
-0.017533 0.400000 -0.793292
-0.015851 0.600000 -0.717181
-0.012477 0.800000 -0.564505
-0.000000 1.000000 -0.000000
-0.834065 0.000000 -0.111395
-0.823075 0.200000 -0.109928
-0.786502 0.400000 -0.105043
-0.711043 0.600000 -0.094965
-0.559673 0.800000 -0.074748
-0.000000 1.000000 -0.000000
-0.238718 0.000000 0.806900
-0.235572 0.200000 0.796268
-0.225105 0.400000 0.760886
-0.203508 0.600000 0.687884
-0.160184 0.800000 0.541444
-0.000000 1.000000 0.000000
